-51,-35,0.635483301134305
-50,-35,0.749742776265234
-53,-34,0.318849344699241
-52,-34,0.717907837769852
-51,-34,1.24047110011431
-50,-34,1.76350813284783
-49,-34,1.9587980555176
-53,-33,0.661053164409725
-52,-33,1.34573266727727
-51,-33,2.23656848078219
-50,-33,3.68675572887209
-49,-33,4.69560784789295
-48,-33,3.68727643726618
-54,-32,0.323880261906352
-53,-32,0.933077103221031
-52,-32,1.77178654548731
-51,-32,3.56373150979002
-50,-32,11.1564509173366
-49,-32,24.4813414392204
-48,-32,7.91084997505899
-47,-32,4.46112855244195
-54,-31,0.335104006419518
-53,-31,1.08551541402364
-52,-31,2.11186051267688
-51,-31,4.0657874622745
-50,-31,10.4945510287252
-49,-31,29.5650237589244
-48,-31,22.0750103162579
-47,-31,7.51403793750791
-46,-31,4.41026989613525
-45,-31,2.86196833227574
-54,-30,0.316296846989143
-53,-30,1.05627322181205
-52,-30,2.11130765217507
-51,-30,3.8244104520788
-50,-30,7.76806985105645
-49,-30,27.5854543928789
-48,-30,30.75285313646
-47,-30,15.1654158257365
-46,-30,6.85659989250987
-45,-30,4.32472070368296
-44,-30,2.7929997117305
-54,-29,0.211144040585552
-53,-29,0.886444021170597
-52,-29,1.93661608003312
-51,-29,3.38823773382359
-50,-29,6.17468991476737
-49,-29,16.0409093999626
-48,-29,31.5595765363266
-47,-29,30.1281821067168
-46,-29,11.8711492928949
-45,-29,6.54188652584734
-44,-29,4.47540394079002
-43,-29,3.00195880280742
-54,-28,0.303900714843344
-53,-28,0.718712332266401
-52,-28,1.70908212174275
-51,-28,3.08320405330758
-50,-28,5.31040334382339
-49,-28,10.7499381286805
-48,-28,30.1048375750491
-47,-28,32.3273141233014
-46,-28,28.6632569219832
-45,-28,11.8024334561219
-44,-28,7.23437541087456
-43,-28,4.99183056542673
-42,-28,3.5388123089328
-55,-27,0.140086055587563
-54,-27,0.41755569077407
-53,-27,0.729599826339946
-52,-27,1.6927654850378
-51,-27,3.52495460208581
-50,-27,9.8641641090194
-49,-27,14.2806049498544
-48,-27,23.3782424944198
-47,-27,31.94485715296
-46,-27,32.3890425034102
-45,-27,30.4748508732715
-44,-27,17.384746026909
-43,-27,8.89800089393171
-42,-27,5.89383781941827
-41,-27,4.15774751007297
-55,-26,0.304342284616107
-54,-26,0.488085288337745
-53,-26,0.872751438439543
-52,-26,1.93539778245243
-51,-26,9.46232508203398
-50,-26,12.8775957322742
-49,-26,13.5129040775395
-48,-26,9.81081525919486
-47,-26,27.6017516344739
-46,-26,32.2884026308399
-45,-26,32.7294575499943
-44,-26,31.8633338412583
-43,-26,27.4900068526437
-42,-26,11.7351710225996
-41,-26,7.14241212048294
-40,-26,4.85744314611759
-56,-25,0.648330593277821
-55,-25,0.561724752302225
-54,-25,0.592852260653065
-53,-25,0.922140943145656
-52,-25,1.79967604948923
-51,-25,6.40196546787622
-50,-25,12.6996474731957
-49,-25,13.0808186586603
-48,-25,12.6482826702388
-47,-25,10.6886864511776
-46,-25,27.7443417628964
-45,-25,31.5586144364166
-44,-25,32.5044408896994
-43,-25,32.2594258003794
-42,-25,30.5513010261609
-41,-25,18.2525424221752
-40,-25,8.85801780909519
-39,-25,5.53614980419278
-57,-24,1.27412615986335
-56,-24,1.20249405953789
-55,-24,0.955751277988281
-54,-24,0.769837483669752
-53,-24,0.919741231533802
-52,-24,1.61813688685741
-51,-24,4.39537807681992
-50,-24,12.5198511052952
-49,-24,12.8032592269175
-48,-24,13.1415750102972
-47,-24,13.7590394001639
-46,-24,11.1216359388395
-45,-24,13.3829213217329
-44,-24,26.1807220672963
-43,-24,30.9545604466916
-42,-24,32.0195905176573
-41,-24,31.6600448267096
-40,-24,27.5694515576465
-39,-24,10.2619131384162
-38,-24,5.75603469480498
-58,-23,2.24118679414441
-57,-23,3.07512615063277
-56,-23,2.68592015850912
-55,-23,1.76610786633301
-54,-23,1.11057966957976
-53,-23,0.951995502961946
-52,-23,1.417624773899
-51,-23,3.24925029292124
-50,-23,12.2782279614072
-49,-23,12.6655569219397
-48,-23,12.8040616218851
-47,-23,13.0372191718558
-46,-23,13.4448009708603
-45,-23,14.007159410744
-44,-23,14.6056239874927
-43,-23,13.6435992793449
-42,-23,23.7427180362293
-41,-23,32.033614624191
-40,-23,32.219611168518
-39,-23,27.6783905174317
-38,-23,9.69231184109572
-37,-23,5.46573192375646
-59,-22,2.76115140878205
-58,-22,7.55340581708381
-57,-22,12.8596393801227
-56,-22,12.1264397138737
-55,-22,3.7133281761815
-54,-22,1.65296287970514
-53,-22,1.07984065681059
-52,-22,1.23517606802825
-51,-22,2.32369642077717
-50,-22,10.211963068196
-49,-22,12.5564083433635
-48,-22,12.6313910404109
-47,-22,12.722533481043
-46,-22,12.8549671583557
-45,-22,13.0741169550118
-44,-22,13.493560194923
-43,-22,14.3159184731268
-42,-22,16.3918632352312
-41,-22,28.8277680048258
-40,-22,32.5331279161036
-39,-22,32.2252963459327
-38,-22,25.5031568216173
-37,-22,8.72400518284773
-36,-22,4.78077585684815
-60,-21,1.62609774223208
-59,-21,4.41304178292955
-58,-21,13.2975985114284
-57,-21,13.5849150615322
-56,-21,13.4829441325827
-55,-21,7.13041920226006
-54,-21,2.29952232857863
-53,-21,1.37688434095095
-52,-21,1.21355519047093
-51,-21,1.77114419952488
-50,-21,4.44690775117793
-49,-21,12.4298996785766
-48,-21,12.5857522694837
-47,-21,12.6236945816747
-46,-21,12.6567649598028
-45,-21,12.7429911297732
-44,-21,12.9228750880719
-43,-21,13.3209492017625
-42,-21,14.4581816226649
-41,-21,18.7282548612225
-40,-21,30.9324256508968
-39,-21,32.6409599405209
-38,-21,31.8381560933546
-37,-21,21.5536564728764
-36,-21,7.08100287354264
-35,-21,3.4736863436878
-60,-20,1.7280368557764
-59,-20,4.4829002589529
-58,-20,13.3720717342593
-57,-20,13.645211891969
-56,-20,13.6075305372052
-55,-20,12.2091313677791
-54,-20,3.1539199715254
-53,-20,1.91022120266761
-52,-20,1.51415692836639
-51,-20,1.59666814603018
-50,-20,2.73240760986503
-49,-20,11.525378362797
-48,-20,12.5634179412934
-47,-20,12.5969301881961
-46,-20,12.5997950140253
-45,-20,12.626525535634
-44,-20,12.7013494135063
-43,-20,12.9052643622748
-42,-20,13.4491088145184
-41,-20,15.0027843538612
-40,-20,20.1321100952355
-39,-20,30.9460474154891
-38,-20,31.3803392550137
-37,-20,29.7919620750379
-36,-20,12.7179711229785
-35,-20,3.86167174126105
-60,-19,1.62554898065004
-59,-19,4.11347234225794
-58,-19,13.2738138128516
-57,-19,13.6391895395859
-56,-19,13.6506955987807
-55,-19,13.3115604112687
-54,-19,5.2488165794628
-53,-19,3.39074044722231
-52,-19,2.57998176326297
-51,-19,2.08770866521754
-50,-19,2.17965715755767
-49,-19,4.73616034495162
-48,-19,12.4291254316003
-47,-19,12.5854074119468
-46,-19,12.6020932646489
-45,-19,12.6000761187578
-44,-19,12.6058814475632
-43,-19,12.6883814321738
-42,-19,12.9581989607752
-41,-19,13.5430689847013
-40,-19,12.8130996685851
-39,-19,11.2435574132556
-38,-19,11.7450282330971
-37,-19,10.8640563204893
-36,-19,6.98066711361979
-35,-19,3.16352712304106
-60,-18,1.37664191549347
-59,-18,2.82866372477047
-58,-18,11.1781293138805
-57,-18,13.5649545358976
-56,-18,13.6560264242067
-55,-18,13.626652865576
-54,-18,13.376829135792
-53,-18,12.7839913123969
-52,-18,9.94552276258432
-51,-18,5.17715636156787
-50,-18,2.75044564286281
-49,-18,2.88416226335544
-48,-18,10.8224516921184
-47,-18,12.5541324648064
-46,-18,12.5941267584419
-45,-18,12.5998201581981
-44,-18,12.5641357694517
-43,-18,12.6299077426761
-42,-18,12.7301935019035
-41,-18,12.9134668427238
-40,-18,12.8456293680361
-39,-18,5.21784741391851
-38,-18,4.65579310254066
-37,-18,4.16409064205221
-36,-18,3.17165234037178
-35,-18,2.04267419438896
-61,-17,0.571484714655058
-60,-17,1.1908539299155
-59,-17,2.11697188018911
-58,-17,4.42351896615044
-57,-17,13.1742343789397
-56,-17,13.6306776479994
-55,-17,13.6426398402983
-54,-17,13.624530891901
-53,-17,13.5880320381586
-52,-17,13.5382496788111
-51,-17,13.2633634330408
-50,-17,6.31392771297325
-49,-17,2.98913787779539
-48,-17,4.3106862809292
-47,-17,12.372851826954
-46,-17,12.5816186696642
-45,-17,12.5989323119439
-44,-17,12.5792998956649
-43,-17,12.5975446347374
-42,-17,12.626207531369
-41,-17,12.6678956912431
-40,-17,12.6284349093943
-39,-17,5.07878595740061
-38,-17,2.80357472435018
-37,-17,2.2375133210894
-36,-17,1.69326970180222
-35,-17,1.17552321310304
-61,-16,0.874642803397869
-60,-16,1.49570582241868
-59,-16,2.29030859449897
-58,-16,3.30449118647233
-57,-16,8.15210298949615
-56,-16,13.4001055118965
-55,-16,13.3242568257663
-54,-16,13.049038103132
-53,-16,12.8369399954488
-52,-16,13.5521366736235
-51,-16,13.6013652831175
-50,-16,13.2625094865244
-49,-16,5.97405880131871
-48,-16,3.30905085206223
-47,-16,9.59536093667198
-46,-16,12.5350128234354
-45,-16,12.5697456510256
-44,-16,12.5909255598548
-43,-16,12.5912380293663
-42,-16,12.5873550990068
-41,-16,12.5951496703914
-40,-16,12.5547965618637
-39,-16,7.69743871207609
-38,-16,2.35554644461281
-37,-16,1.59096412411729
-36,-16,1.08531567869428
-35,-16,0.612781749081159
-62,-15,0.674676851737244
-61,-15,1.32694364686371
-60,-15,2.42978341382461
-59,-15,3.61259838806688
-58,-15,4.64126905538133
-57,-15,5.34410403655749
-56,-15,6.06920519542335
-55,-15,4.80545640897004
-54,-15,3.89185810836155
-53,-15,4.33592701823316
-52,-15,12.866777662606
-51,-15,13.6029247964755
-50,-15,13.6101040341437
-49,-15,13.2281872179271
-48,-15,5.52148526492838
-47,-15,4.15762733408224
-46,-15,12.2598548999527
-45,-15,12.5135882966126
-44,-15,12.5044352509724
-43,-15,12.4849246805963
-42,-15,12.5109546474398
-41,-15,12.3681000808616
-40,-15,12.3692859935847
-39,-15,6.54284119427286
-38,-15,2.90809646464855
-37,-15,1.86836975660354
-36,-15,1.18191776221031
-35,-15,0.721239497244903
-62,-14,0.982124498647926
-61,-14,2.09404462384443
-60,-14,3.79785992487963
-59,-14,7.28660711195436
-58,-14,11.4116765178653
-57,-14,11.9703542178025
-56,-14,9.06538757837568
-55,-14,4.56415485614908
-54,-14,2.90413150929921
-53,-14,2.74336463221736
-52,-14,5.87616090465513
-51,-14,13.3939504122151
-50,-14,13.6402711401954
-49,-14,13.6361712609941
-48,-14,12.9992916827623
-47,-14,4.45661813420469
-46,-14,5.84801881749548
-45,-14,6.29963627220845
-44,-14,5.29578895751179
-43,-14,4.58762793298307
-42,-14,4.26043761236212
-41,-14,9.89006057965092
-40,-14,13.4571008079051
-39,-14,14.0763427299888
-38,-14,13.6391960580939
-37,-14,3.44664545320231
-36,-14,1.76300162684261
-35,-14,1.0601749363842
-63,-13,0.359607873617582
-62,-13,1.35854273104537
-61,-13,2.6801439527175
-60,-13,5.14516027084311
-59,-13,14.8928686043485
-58,-13,42.6624347339996
-57,-13,42.9960119667383
-56,-13,23.9261594306173
-55,-13,5.81279859483892
-54,-13,3.03106460570945
-53,-13,2.21990698423082
-52,-13,3.12094972940167
-51,-13,11.1061754623993
-50,-13,13.5866554148398
-49,-13,13.6331606845524
-48,-13,13.44966852482
-47,-13,8.55522622510478
-46,-13,2.35564660207968
-45,-13,1.8912473872168
-44,-13,1.75065972895888
-43,-13,1.75712685589625
-42,-13,2.16397635447797
-41,-13,4.66577109106757
-40,-13,15.2170131454273
-39,-13,15.578470700165
-38,-13,15.4870082156651
-37,-13,8.38480441358215
-36,-13,2.70539966646656
-35,-13,1.49348554636668
-74,-12,2.42145088910351
-73,-12,3.60662646502786
-72,-12,4.82853992297288
-71,-12,6.10857510871765
-70,-12,8.23348496946821
-69,-12,4.13270505484597
-68,-12,1.85862332957883
-67,-12,0.838311278847175
-63,-12,0.356561784017309
-62,-12,1.48580434414281
-61,-12,2.91539496121771
-60,-12,5.66994721456512
-59,-12,16.0326998057805
-58,-12,43.7460960446825
-57,-12,43.7883479008374
-56,-12,16.5686165374079
-55,-12,5.80694277143524
-54,-12,3.04244415053749
-53,-12,2.01940114878702
-52,-12,2.3578591440291
-51,-12,4.898212161247
-50,-12,13.4342186502447
-49,-12,13.6299454667473
-48,-12,13.2151236691027
-47,-12,4.18618230459609
-46,-12,1.81468793764347
-45,-12,1.15786760072517
-44,-12,0.991941859951602
-43,-12,1.07654430879172
-42,-12,1.51714630793279
-41,-12,2.75669322939907
-40,-12,9.43511401743092
-39,-12,15.5213320513479
-38,-12,15.5955861486557
-37,-12,15.2013024476547
-36,-12,4.75503218957418
-35,-12,2.15123684087657
-75,-11,2.75074723034928
-74,-11,4.94008827548505
-73,-11,7.72485167530116
-72,-11,11.1343901897431
-71,-11,19.1289773341148
-70,-11,18.3685908393015
-69,-11,6.27625208264071
-68,-11,2.46957539055552
-67,-11,1.07582808982456
-63,-11,0.361448188860362
-62,-11,1.39186600687407
-61,-11,2.74586657919437
-60,-11,5.25443424360282
-59,-11,15.1015487611582
-58,-11,43.0196871161006
-57,-11,42.5529498343099
-56,-11,11.9964529544906
-55,-11,4.94988248083788
-54,-11,2.73054186721472
-53,-11,1.88676864346239
-52,-11,2.37362737756196
-51,-11,7.00650786236409
-50,-11,13.5308552518146
-49,-11,13.5574393170939
-48,-11,10.6446301974382
-47,-11,2.74653795363893
-46,-11,1.41940190943018
-45,-11,0.848914735247536
-44,-11,0.618319305167018
-43,-11,0.730961434709451
-42,-11,1.12164402105249
-41,-11,1.89587863444384
-40,-11,3.90666115377938
-39,-11,14.7923919507055
-38,-11,15.5885241824665
-37,-11,15.5690910119472
-36,-11,13.4953601989636
-35,-11,3.37588208349975
-34,-11,1.80283546291869
-75,-10,4.83619939668993
-74,-10,14.7059825098321
-73,-10,20.8059626563292
-72,-10,20.574749213737
-71,-10,24.9775847871262
-70,-10,18.2232062173868
-69,-10,6.07542282095768
-68,-10,2.55737505792428
-67,-10,1.03829393132199
-62,-10,1.08355028786521
-61,-10,2.21371148272693
-60,-10,3.97013382251051
-59,-10,8.12440488800465
-58,-10,13.5304202245258
-57,-10,13.1284087115215
-56,-10,6.84927970221197
-55,-10,3.65050407735629
-54,-10,2.19028527827028
-53,-10,1.71779952472707
-52,-10,2.89345866639416
-51,-10,12.3497164647403
-50,-10,13.5357706533313
-49,-10,13.3160568065925
-48,-10,4.71675908008313
-47,-10,2.01128363280751
-46,-10,1.10902803870589
-45,-10,0.63488060924942
-44,-10,0.326427086525533
-43,-10,0.487322644753597
-42,-10,0.831858735516747
-41,-10,1.37251626954968
-40,-10,2.46390425529254
-39,-10,6.45925490289183
-38,-10,15.4472895905925
-37,-10,15.6176692566977
-36,-10,15.4782907390317
-35,-10,7.04401270921733
-34,-10,2.71769141151753
-74,-9,27.0753214432684
-73,-9,21.1846801382041
-72,-9,22.939760600171
-71,-9,19.7695582075928
-70,-9,8.16676634517914
-69,-9,3.9323217398378
-68,-9,1.95989544287983
-67,-9,0.710255936338148
-62,-9,0.715609286198445
-61,-9,1.49125311444987
-60,-9,2.50858045442095
-59,-9,3.77545212882051
-58,-9,4.69776661315075
-57,-9,4.59538626009103
-56,-9,3.53857765792998
-55,-9,2.37216301863877
-54,-9,1.48407520494171
-53,-9,1.58546872923295
-52,-9,3.24939561087209
-51,-9,12.9158399185734
-50,-9,13.5180083607529
-49,-9,11.722942574357
-48,-9,2.99470914248208
-47,-9,1.55505368828113
-46,-9,0.898601970353399
-45,-9,0.471091909419934
-43,-9,0.261507973220889
-42,-9,0.648986149064433
-41,-9,1.22833483284751
-40,-9,2.05545645668333
-39,-9,3.5994414743972
-38,-9,13.5219040318821
-37,-9,15.6705227480374
-36,-9,15.7591131070158
-35,-9,15.2113008910747
-34,-9,4.58866309629747
-33,-9,2.19362609599086
-74,-8,20.9257830445131
-73,-8,20.4990384067132
-72,-8,19.4936841285185
-71,-8,8.05255248754675
-70,-8,4.47232180666881
-69,-8,2.48815585568244
-68,-8,1.07025531202877
-67,-8,0.377622530777752
-66,-8,0.128636901242296
-65,-8,0.231539859782542
-64,-8,0.365648784146186
-63,-8,0.474488213459074
-62,-8,0.669474287892969
-61,-8,1.07381396638034
-60,-8,1.60554457432897
-59,-8,2.13562180294161
-58,-8,2.431971667405
-57,-8,2.31439681439057
-56,-8,1.9379679376755
-55,-8,1.37666017383796
-54,-8,1.13335620926661
-53,-8,1.55428871064557
-52,-8,3.38143581428237
-51,-8,13.0748630068196
-50,-8,13.42006903109
-49,-8,5.79107623798105
-48,-8,2.31759014407233
-47,-8,1.3034372985097
-46,-8,0.727496317950258
-45,-8,0.324651838079712
-43,-8,0.548504291516564
-42,-8,1.06165934769414
-41,-8,1.78433956147238
-40,-8,2.51881469826057
-39,-8,3.61629959381994
-38,-8,6.1239933210477
-37,-8,15.9005993396293
-36,-8,16.6244603585297
-35,-8,16.6923630713874
-34,-8,7.86345475025188
-33,-8,2.92384614489632
-74,-7,16.479086909245
-73,-7,18.642789277078
-72,-7,7.17860757995447
-71,-7,4.31207987023776
-70,-7,2.40662973454436
-69,-7,1.21195419673063
-68,-7,0.301233396068996
-67,-7,0.13037623284835
-66,-7,0.341769592131742
-65,-7,0.54333209076446
-64,-7,0.786218502191009
-63,-7,0.985901913724536
-62,-7,1.16245195945706
-61,-7,1.29329850893181
-60,-7,1.48976886511995
-59,-7,1.72776265049683
-58,-7,1.72369661050326
-57,-7,1.51152680550382
-56,-7,1.10725342534194
-55,-7,0.805992420809556
-54,-7,0.880633172674751
-53,-7,1.5936744425785
-52,-7,3.48651612664327
-51,-7,13.0256685065617
-50,-7,13.4375527778501
-49,-7,6.34717023926542
-48,-7,2.2271654570313
-47,-7,1.21911148111259
-46,-7,0.671027125249886
-45,-7,0.19710811652718
-44,-7,0.459712074216283
-43,-7,1.08985662009485
-42,-7,1.86566008732425
-41,-7,2.83772568108083
-40,-7,4.05599199076682
-39,-7,5.82546595288408
-38,-7,8.56543936647263
-37,-7,14.7045687474199
-36,-7,30.7242777337077
-35,-7,35.323913113706
-34,-7,8.93881259426631
-33,-7,3.48665842565401
-32,-7,1.79632343980157
-74,-6,7.92230435146495
-73,-6,5.2649733228203
-72,-6,3.50807888696947
-71,-6,2.27085925556749
-70,-6,1.11062128745693
-69,-6,0.293751228147223
-67,-6,0.335199786495143
-66,-6,0.590061218826755
-65,-6,0.97922693477085
-64,-6,1.45834034538848
-63,-6,1.87221208989772
-62,-6,2.19471484651764
-61,-6,2.42473703841192
-60,-6,2.58267001060697
-59,-6,2.64670816052589
-58,-6,2.46069438067095
-57,-6,1.78985395591745
-56,-6,1.04480645668622
-55,-6,0.7078988417958
-54,-6,0.926750096561982
-53,-6,1.62463340225833
-52,-6,3.59742154577972
-51,-6,13.0873678770607
-50,-6,13.5794502049826
-49,-6,8.80241037635546
-48,-6,2.40202525532822
-47,-6,1.26363915926042
-46,-6,0.669391756077303
-45,-6,0.34482782551914
-44,-6,0.888841481307579
-43,-6,1.6912736616812
-42,-6,2.88997344274411
-41,-6,4.6871191754586
-40,-6,7.63697387005356
-39,-6,16.4389585643791
-38,-6,35.2151432966935
-37,-6,36.8878207962659
-36,-6,37.2622529672546
-35,-6,36.4499347510679
-34,-6,9.49790935153992
-33,-6,3.70522220896704
-32,-6,1.90401978370787
-73,-5,2.07338014941868
-72,-5,1.61017878705844
-71,-5,0.955730220317686
-68,-5,0.183484574413768
-67,-5,0.477004769029957
-66,-5,0.917623261829384
-65,-5,1.63674110046525
-64,-5,2.84584731163455
-63,-5,3.95661371452781
-62,-5,4.71574115496318
-61,-5,5.45008326641592
-60,-5,6.3679891852394
-59,-5,7.52018741935232
-58,-5,8.33655650701514
-57,-5,3.8485408361219
-56,-5,1.55004934450523
-55,-5,0.914892679884493
-54,-5,0.965781389728707
-53,-5,1.66487566057049
-52,-5,3.72169551114466
-51,-5,13.2572613784799
-50,-5,13.5590235577153
-49,-5,11.4521168398352
-48,-5,2.70805921161164
-47,-5,1.35910394600982
-46,-5,0.740905336820868
-45,-5,0.551062088406525
-44,-5,1.19621656016554
-43,-5,2.33111459238388
-42,-5,4.5888988382091
-41,-5,9.84375244552663
-40,-5,31.7535990359497
-39,-5,36.993367296168
-38,-5,37.4101666049146
-37,-5,37.3917934118924
-36,-5,36.8472276110658
-35,-5,33.9715315565301
-34,-5,7.82000263242347
-33,-5,3.29442662398702
-32,-5,1.7441754561223
-72,-4,0.563186406723215
-68,-4,0.26317091230696
-67,-4,0.652385780859491
-66,-4,1.23474862930341
-65,-4,2.44965825888357
-64,-4,7.96318913819475
-63,-4,11.2026423450443
-62,-4,11.7690044034035
-61,-4,12.04178622721
-60,-4,12.2149654948314
-59,-4,12.2451479397594
-58,-4,11.4036117722802
-57,-4,4.27215966441093
-56,-4,1.81874178284374
-55,-4,1.02490446108359
-54,-4,1.01003326377679
-53,-4,1.68463640473867
-52,-4,3.84954160297376
-51,-4,13.2038573759609
-50,-4,13.5809674330049
-49,-4,12.6421841675551
-48,-4,3.09755525535284
-47,-4,1.49690452172708
-46,-4,0.809212460381973
-45,-4,0.681545077112383
-44,-4,1.29914716607433
-43,-4,2.66394041063774
-42,-4,6.85408386370985
-41,-4,34.6605480508803
-40,-4,37.0804546751068
-39,-4,37.3915472040046
-38,-4,36.6529890603462
-37,-4,31.8617421895882
-36,-4,13.01868719167
-35,-4,7.55002571445162
-34,-4,4.39058119430191
-68,-3,0.346041845750923
-67,-3,0.765017910297387
-66,-3,1.48514343646504
-65,-3,2.94118764240595
-64,-3,9.14491444527005
-63,-3,12.360954785897
-62,-3,12.6502730500162
-61,-3,12.7007507965461
-60,-3,12.7016675818045
-59,-3,12.5564935948477
-58,-3,11.0360690256903
-57,-3,3.81002685495333
-56,-3,1.83423292161039
-55,-3,1.0491660991623
-54,-3,1.01740640253892
-53,-3,1.70814125832407
-52,-3,3.97705196314514
-51,-3,13.2163433531269
-50,-3,13.6008767748524
-49,-3,13.1001222219152
-48,-3,3.59456285981047
-47,-3,1.63574469751692
-46,-3,0.870733721918611
-45,-3,0.671520174887
-44,-3,1.24615263197819
-43,-3,2.35155002227282
-42,-3,4.85079445504061
-41,-3,13.4917607560227
-40,-3,35.1607947518308
-39,-3,25.1613802128549
-38,-3,10.9135101868964
-37,-3,7.16724514788011
-36,-3,5.20423814155576
-68,-2,0.32187271271702
-67,-2,0.821292874191531
-66,-2,1.58379072516037
-65,-2,3.09330076463743
-64,-2,9.23952592769651
-63,-2,12.4698988652797
-62,-2,12.7414837222042
-61,-2,12.7717705468467
-60,-2,12.7497158772329
-59,-2,12.4951013201094
-58,-2,9.75620580401671
-57,-2,3.31984928404438
-56,-2,1.71639689409202
-55,-2,0.995680025355138
-54,-2,0.974475931417167
-53,-2,1.67700367869698
-52,-2,4.05036592005988
-51,-2,13.2834964726644
-50,-2,13.6122024352202
-49,-2,13.3162381322167
-48,-2,4.2793753451906
-47,-2,1.76419034582931
-46,-2,0.920074860725054
-45,-2,0.580318433530242
-44,-2,0.922867634986564
-43,-2,1.74636135224629
-42,-2,3.02192877334799
-41,-2,5.06577635093564
-40,-2,7.1578498062358
-39,-2,6.00340239309778
-38,-2,4.70097952892261
-68,-1,0.34541679040365
-67,-1,0.829510873611314
-66,-1,1.56955973311152
-65,-1,3.08086094656572
-64,-1,9.19787639176471
-63,-1,12.4692974527611
-62,-1,12.745308519272
-61,-1,12.7740433645329
-60,-1,12.7353658928096
-59,-1,12.3233623656749
-58,-1,7.56534617532534
-57,-1,2.91156092201828
-56,-1,1.54359210526725
-55,-1,0.875911237160474
-54,-1,0.848562127187968
-53,-1,1.52571056661097
-52,-1,3.5231656423123
-51,-1,13.0390758688908
-50,-1,13.6032086464962
-49,-1,13.4148170344859
-48,-1,5.19555201649256
-47,-1,1.81385652764375
-46,-1,0.92082553812157
-45,-1,0.48794401940634
-44,-1,0.623265078332013
-43,-1,1.13132729913354
-42,-1,1.77387297575365
-41,-1,2.50565423014914
-68,0,0.32315416375482
-67,0,0.73528804074149
-66,0,1.4470466794501
-65,0,2.89021599812527
-64,0,8.98611312577393
-63,0,12.3730496075445
-62,0,12.7088512241007
-61,0,12.7601638295406
-60,0,12.6968579434503
-59,0,12.061324443097
-58,0,5.69998403564546
-57,0,2.52594070496039
-56,0,1.38196846987729
-55,0,0.750624655028342
-54,0,0.72509387566388
-53,0,1.25993307998828
-52,0,2.54701289623136
-51,0,10.4604705655319
-50,0,13.4248581538581
-49,0,12.9065233582398
-48,0,4.81410212890268
-47,0,1.60767246567494
-46,0,0.821706652243649
-45,0,0.413238293365926
-43,0,0.572744733883908
-68,1,0.231008121779618
-67,1,0.629577335778898
-66,1,1.22137041800803
-65,1,2.35573772666605
-64,1,6.50015699696048
-63,1,11.4344946619651
-62,1,12.4037368656001
-61,1,12.6554125438092
-60,1,12.6143794154927
-59,1,11.6124856200142
-58,1,4.53598450271098
-57,1,2.18362611989401
-56,1,1.18518979541227
-55,1,0.646988223752403
-54,1,0.578647149558564
-53,1,0.964894631148194
-52,1,1.75505795676116
-51,1,4.52155195257488
-50,1,9.15222305710288
-49,1,3.71948238063849
-48,1,2.06656432071783
-47,1,1.14866924316803
-46,1,0.650035466180338
-45,1,0.328344077653248
-68,2,0.1282039171809
-67,2,0.470480976716874
-66,2,0.901491893657795
-65,2,1.62714156675548
-64,2,2.83768193545095
-63,2,4.89797557772575
-62,2,9.74513128819563
-61,2,11.9377744900326
-60,2,12.2784285457539
-59,2,10.658030783058
-58,2,3.61232961175142
-57,2,1.81588310728808
-56,2,0.996435764145794
-55,2,0.485959453189146
-54,2,0.386277652565271
-53,2,0.674928666312237
-52,2,1.08545821464998
-51,2,1.73226696397028
-50,2,2.01552343056075
-49,2,1.59125440164107
-48,2,1.13125214966506
-67,3,0.278736646021601
-66,3,0.61425654446832
-65,3,1.04523499090811
-64,3,1.6469944707036
-63,3,2.44499948261602
-62,3,3.56657118901737
-61,3,5.90006623030276
-60,3,9.93887145367643
-59,3,7.79933527636492
-58,3,2.6065225124141
-57,3,1.39357280117881
-56,3,0.756158993159652
-55,3,0.347852948593491
-54,3,0.223979809838442
-53,3,0.429951839770414
-52,3,0.629392500315395
-51,3,0.821876982276832
-50,3,0.916261849438981
-49,3,0.818340166101505
-66,4,0.344717791182267
-65,4,0.604954212796898
-64,4,0.989977225889998
-63,4,1.40680275257647
-62,4,1.8730867023212
-61,4,2.41559601841373
-60,4,2.8121331311901
-59,4,2.41455183913882
-58,4,1.57550547332578
-57,4,0.95106247090125
-56,4,0.547925271111587
-55,4,0.236732601593367
-53,4,0.227973919314926
-52,4,0.367387551256231
-51,4,0.454660401860404
-50,4,0.493470793166115
-64,5,0.556659202591844
-63,5,0.760997100228881
-62,5,1.01359620465191
-61,5,1.20995130008613
-60,5,1.28141525346983
-59,5,1.12526014241155
-58,5,0.83914032331459
-51,5,0.218853656449971
-61,6,0.610567785243665
-60,6,0.637768227147322
-59,6,0.602251610202596
