-51,-35,0.876398063493308
-50,-35,1.05623412928183
-53,-34,0.413494242229261
-52,-34,1.00624107710225
-51,-34,1.78959654457821
-50,-34,2.56855263004903
-49,-34,2.86694349516557
-53,-33,0.910632878732235
-52,-33,1.93411925068292
-51,-33,3.28401016407871
-50,-33,5.39091055801099
-49,-33,6.8016487695904
-48,-33,5.42961464232074
-54,-32,0.42134104417666
-53,-32,1.31232033412756
-52,-32,2.58229453013984
-51,-32,5.22858698895293
-50,-32,15.0457512156534
-49,-32,30.9854044230727
-48,-32,11.3736764035743
-47,-32,6.61752779510568
-54,-31,0.438851315089695
-53,-31,1.53029903517148
-52,-31,3.07720621315751
-51,-31,6.00669541039059
-50,-31,14.7362004730453
-49,-31,38.0802293264652
-48,-31,28.9784770960645
-47,-31,11.0340900113136
-46,-31,6.54731977205101
-45,-31,4.16994369993454
-54,-30,0.409531218963673
-53,-30,1.4781257262431
-52,-30,3.05961836300796
-51,-30,5.67188402264758
-50,-30,11.3456746801857
-49,-30,35.6803664367032
-48,-30,39.9824353243713
-47,-30,21.0674968350821
-46,-30,10.1578684560823
-45,-30,6.38436898276568
-44,-30,4.05108342658101
-54,-29,0.26296552128418
-53,-29,1.22452555957187
-52,-29,2.77671530192862
-51,-29,4.99959297922472
-50,-29,9.15780246997518
-49,-29,22.1097469442828
-48,-29,41.1987552067867
-47,-29,39.2849729719778
-46,-29,17.0626807195057
-45,-29,9.72389364477385
-44,-29,6.59586054916304
-43,-29,4.36518975950993
-54,-28,0.396060647871122
-53,-28,1.00120434926817
-52,-28,2.43453821481829
-51,-28,4.503891048038
-50,-28,7.84502285967124
-49,-28,15.3754751957952
-48,-28,39.2486652636205
-47,-28,42.410020026927
-46,-28,37.4784589992717
-45,-28,17.0447948636952
-44,-28,10.7218033513788
-43,-28,7.38964470855271
-42,-28,5.17801700865946
-55,-27,0.173578787719225
-54,-27,0.557489484396274
-53,-27,1.02296532366434
-52,-27,2.42483951898237
-51,-27,5.00218684332653
-50,-27,12.9295725554601
-49,-27,18.6959768313276
-48,-27,30.7344137861586
-47,-27,41.904400657821
-46,-27,42.6265839126502
-45,-27,39.8880407113696
-44,-27,23.9249487471028
-43,-27,13.0503991081117
-42,-27,8.75624804314449
-41,-27,6.13639461917541
-55,-26,0.386672195577679
-54,-26,0.659585168635976
-53,-26,1.24084020289419
-52,-26,2.76441279792553
-51,-26,11.8677256310973
-50,-26,16.1908026321762
-49,-26,17.3683619726545
-48,-26,14.2338239506685
-47,-26,35.9746360619471
-46,-26,42.4287026083484
-45,-26,43.1312078644985
-44,-26,41.8312632469778
-43,-26,35.8816204418973
-42,-26,16.86282819598
-41,-26,10.5651891157377
-40,-26,7.19778705903716
-56,-25,0.891856775235258
-55,-25,0.759095722800824
-54,-25,0.805684533532329
-53,-25,1.31334493234849
-52,-25,2.59436605228875
-51,-25,8.39696753506831
-50,-25,15.8643400297994
-49,-25,16.570907496307
-48,-25,16.4655309700524
-47,-25,15.3878117621896
-46,-25,36.0453000395452
-45,-25,41.3674784375036
-44,-25,42.7672393709972
-43,-25,42.4013746257061
-42,-25,39.9291010991316
-41,-25,24.8749670094932
-40,-25,12.9523894364064
-39,-25,8.21112560774088
-57,-24,1.84568553127644
-56,-24,1.73935845171661
-55,-24,1.36691269668696
-54,-24,1.07096212092447
-53,-24,1.30270266760946
-52,-24,2.34182016504131
-51,-24,5.97926382606741
-50,-24,15.5630890124078
-49,-24,16.0540356318394
-48,-24,16.6721063836588
-47,-24,17.7710695185405
-46,-24,15.4460313033949
-45,-24,19.0062735260962
-44,-24,34.2628665202044
-43,-24,40.5113903507743
-42,-24,42.0489819182141
-41,-24,41.4954546908698
-40,-24,35.8641839792389
-39,-24,14.8479982668194
-38,-24,8.54279941582658
-58,-23,3.23325443377462
-57,-23,4.34237462379905
-56,-23,3.82588407345321
-55,-23,2.55696164343292
-54,-23,1.59383002753106
-53,-23,1.34555469517691
-52,-23,2.04867036389784
-51,-23,4.53106015034371
-50,-23,15.1951484215648
-49,-23,15.8010319270123
-48,-23,16.0580364022875
-47,-23,16.4867961501096
-46,-23,17.2143348779915
-45,-23,18.2058271691756
-44,-23,19.3129545799849
-43,-23,19.1152965588847
-42,-23,31.7047901670596
-41,-23,42.0661581675885
-40,-23,42.3182453382899
-39,-23,36.107170811342
-38,-23,14.1333191299527
-37,-23,8.1248215188373
-59,-22,3.91513823022073
-58,-22,9.88266402788274
-57,-22,16.0888180918335
-56,-22,15.1488754920035
-55,-22,5.17459608883582
-54,-22,2.39623417387449
-53,-22,1.53619376877141
-52,-22,1.77341417057294
-51,-22,3.3187994990964
-50,-22,12.7698094093279
-49,-22,15.6100751762771
-48,-22,15.745406553759
-47,-22,15.9126470624804
-46,-22,16.1563344054171
-45,-22,16.567689378636
-44,-22,17.306000386067
-43,-22,18.7042731364883
-42,-22,21.792678595011
-41,-22,37.6870018632256
-40,-22,42.8157322534544
-39,-22,42.3445751511376
-38,-22,33.4224855027466
-37,-22,12.780806495409
-36,-22,7.0940656388893
-60,-21,2.36111688505393
-59,-21,6.08433763764913
-58,-21,16.7417318246663
-57,-21,17.2301687805981
-56,-21,17.0500650010219
-55,-21,9.44447607530548
-54,-21,3.33419880215109
-53,-21,1.97774182359945
-52,-21,1.72961045666623
-51,-21,2.55742519389556
-50,-21,6.04546509944156
-49,-21,15.4078068663606
-48,-21,15.6695466373904
-47,-21,15.7316630336706
-46,-21,15.7986278276695
-45,-21,15.9494613469512
-44,-21,16.2901853525778
-43,-21,17.0167989858755
-42,-21,18.9069191905922
-41,-21,24.8439501450254
-40,-21,40.4753374168971
-39,-21,42.9626951983483
-38,-21,41.7131809217087
-37,-21,28.5839425534194
-36,-21,10.3414891134316
-35,-21,5.12397697439213
-60,-20,2.51193980042724
-59,-20,6.22039225856479
-58,-20,16.881387277368
-57,-20,17.3448370791316
-56,-20,17.2760642226914
-55,-20,15.3367656692744
-54,-20,4.53922828426253
-53,-20,2.78016711324985
-52,-20,2.18144014082381
-51,-20,2.30826464601422
-50,-20,3.872379555106
-49,-20,14.2386547171134
-48,-20,15.6236486009233
-47,-20,15.6901514673854
-46,-20,15.7018319611141
-45,-20,15.7457381611807
-44,-20,15.8762233539529
-43,-20,16.2657982716459
-42,-20,17.2324451591408
-41,-20,19.6586466422723
-40,-20,26.9942779218359
-39,-20,40.350344050108
-38,-20,40.9383600438929
-37,-20,38.4621711743945
-36,-20,17.2413209601546
-35,-20,5.67601273867875
-60,-19,2.36049868870505
-59,-19,5.72218863749732
-58,-19,16.7178213026632
-57,-19,17.3378336109074
-56,-19,17.3610248418462
-55,-19,16.8142143795329
-54,-19,7.30100123056782
-53,-19,4.85042258684094
-52,-19,3.72830136084046
-51,-19,3.03202385410781
-50,-19,3.16101143532318
-49,-19,6.42156586713163
-48,-19,15.4108417629443
-47,-19,15.67115890572
-46,-19,15.6959035637271
-45,-19,15.6983469278191
-44,-19,15.7252469296294
-43,-19,15.8672722473445
-42,-19,16.3475174791206
-41,-19,17.3611298104169
-40,-19,17.0163041223261
-39,-19,15.9544620449564
-38,-19,16.6484038489429
-37,-19,15.2849762132411
-36,-19,9.9291698290477
-35,-19,4.63969393465351
-60,-18,1.99074151026958
-59,-18,4.05159957915989
-58,-18,14.1306711816848
-57,-18,17.2021043064568
-56,-18,17.3705107650086
-55,-18,17.3144095152225
-54,-18,16.9080401364731
-53,-18,16.0397901336704
-52,-18,12.7525140194448
-51,-18,7.05604612959383
-50,-18,3.97399916632294
-49,-18,4.1313996444074
-48,-18,13.4562873966977
-47,-18,15.6045083060781
-46,-18,15.6858482422732
-45,-18,15.6954274287698
-44,-18,15.6483070230334
-43,-18,15.7531587685905
-42,-18,15.9226673072602
-41,-18,16.2561079371981
-40,-18,16.2273184827326
-39,-18,7.61505432391104
-38,-18,6.90718737105516
-37,-18,6.16226283870709
-36,-18,4.6631279427764
-35,-18,2.97086881025539
-61,-17,0.774402497363817
-60,-17,1.69782862868152
-59,-17,3.06448641902642
-58,-17,6.18623166056113
-57,-17,16.5879049849795
-56,-17,17.3199725914872
-55,-17,17.3468124900611
-54,-17,17.3027119620183
-53,-17,17.241823740242
-52,-17,17.1554302196349
-51,-17,16.704786691837
-50,-17,8.4846325016126
-49,-17,4.33104936742424
-48,-17,5.94050396553251
-47,-17,15.3301287750749
-46,-17,15.6635894690252
-45,-17,15.6942438009073
-44,-17,15.6748845482722
-43,-17,15.6934912091322
-42,-17,15.7459715605533
-41,-17,15.8169391876797
-40,-17,15.7552425912339
-39,-17,7.00651542478815
-38,-17,4.08709789489533
-37,-17,3.25009160077314
-36,-17,2.43831938071359
-35,-17,1.66671911575354
-61,-16,1.20243382864887
-60,-16,2.12804271155508
-59,-16,3.31864085838285
-58,-16,4.80802522177073
-57,-16,10.7654390494335
-56,-16,16.940360404419
-55,-16,16.8326007703308
-54,-16,16.4259269599007
-53,-16,16.1874537578134
-52,-16,17.1826673410325
-51,-16,17.266988184306
-50,-16,16.7238090730362
-49,-16,8.0937245620556
-48,-16,4.76956552266388
-47,-16,12.0917165186648
-46,-16,15.5780803287498
-45,-16,15.6563818958583
-44,-16,15.6777967045676
-43,-16,15.680837472345
-42,-16,15.6748893179132
-41,-16,15.6834497749359
-40,-16,15.6076036367362
-39,-16,9.88568198153778
-38,-16,3.39468886374917
-37,-16,2.27608350407809
-36,-16,1.52593387968047
-35,-16,0.842635516747609
-62,-15,0.906812883465971
-61,-15,1.88425952158728
-60,-15,3.52697259549037
-59,-15,5.32678806972892
-58,-15,6.88198825411055
-57,-15,7.85030473363364
-56,-15,8.58740172440728
-55,-15,6.84258895014329
-54,-15,5.5717489748817
-53,-15,6.14829149341275
-52,-15,16.1573663230915
-51,-15,17.261111396534
-50,-15,17.2785354611335
-49,-15,16.6664237100615
-48,-15,7.56218744411887
-47,-15,5.82077966961466
-46,-15,15.1672963762002
-45,-15,15.5360162099564
-44,-15,15.5280513344187
-43,-15,15.4947688387278
-42,-15,15.5297054469588
-41,-15,15.356340504036
-40,-15,15.3634321048082
-39,-15,8.65650281292743
-38,-15,4.1818106410466
-37,-15,2.70993611213992
-36,-15,1.69533583877011
-35,-15,0.986374715808294
-62,-14,1.36930363768779
-61,-14,3.02390861177866
-60,-14,5.60258693269924
-59,-14,10.5716005111297
-58,-14,16.2331058019911
-57,-14,16.9985456846122
-56,-14,12.9315572737235
-55,-14,6.72735188703394
-54,-14,4.2451588253576
-53,-14,3.98158688075336
-52,-14,7.9695973408601
-51,-14,16.9261481460258
-50,-14,17.3410216840349
-49,-14,17.312504539061
-48,-14,16.3314449494462
-47,-14,6.22570591217091
-46,-14,7.67869079786923
-45,-14,8.22773470732299
-44,-14,7.06559033525142
-43,-14,6.23317907094965
-42,-14,5.87773277860005
-41,-14,12.5304326721713
-40,-14,16.7926970897032
-39,-14,17.5413741207386
-38,-14,16.835529741572
-37,-14,4.88059172187486
-36,-14,2.56314332244123
-35,-14,1.51464932746992
-63,-13,0.457326971248204
-62,-13,1.91456481820751
-61,-13,3.90788770685455
-60,-13,7.63074243917207
-59,-13,20.6196551957849
-58,-13,54.0701836376234
-57,-13,54.5907073157899
-56,-13,31.18246587799
-55,-13,8.57753475277985
-54,-13,4.43011697268843
-53,-13,3.20416292364998
-52,-13,4.47889908786352
-51,-13,14.0863713134652
-50,-13,17.2385027858933
-49,-13,17.3288701714434
-48,-13,17.0046050686504
-47,-13,10.976898478837
-46,-13,3.4082522946638
-45,-13,2.73052361823689
-44,-13,2.52809802209698
-43,-13,2.54384314077926
-42,-13,3.1452347956158
-41,-13,6.45075294525196
-40,-13,18.9903684502932
-39,-13,19.5534460421844
-38,-13,19.3975078902454
-37,-13,10.9475011958239
-36,-13,3.91131175191568
-35,-13,2.16445728750016
-74,-12,3.5753702071769
-73,-12,5.35578640618802
-72,-12,7.1592339417295
-71,-12,8.90904567386444
-70,-12,11.4478060813909
-69,-12,5.98650310388416
-68,-12,2.73606225112384
-67,-12,1.20215459049158
-63,-12,0.45237422485417
-62,-12,2.10296416386183
-61,-12,4.26843198199628
-60,-12,8.43660338595127
-59,-12,22.3369674488975
-58,-12,55.8374587537986
-57,-12,55.8995995429519
-56,-12,23.0020653765706
-55,-12,8.63596172927215
-54,-12,4.44682910345825
-53,-12,2.89242104163173
-52,-12,3.43076783961858
-51,-12,6.85346326542224
-50,-12,16.9923312051688
-49,-12,17.3117132284034
-48,-12,16.6387922672043
-47,-12,5.8359032077674
-46,-12,2.63498212661181
-45,-12,1.66091543686966
-44,-12,1.40634591388024
-43,-12,1.53395968527865
-42,-12,2.19792086334495
-41,-12,3.97661878736116
-40,-12,12.1842941723803
-39,-12,19.4629463755307
-38,-12,19.5868779427776
-37,-12,18.9889901487714
-36,-12,6.61238065541493
-35,-12,3.12893252999221
-75,-11,4.06378142556256
-74,-11,7.28190322052891
-73,-11,11.2435700055203
-72,-11,15.8416133263486
-71,-11,25.3490519121134
-70,-11,24.442763120914
-69,-11,8.99854454085043
-68,-11,3.64771082695678
-67,-11,1.56031108465557
-63,-11,0.4603911443123
-62,-11,1.96263116096445
-61,-11,4.00770614844711
-60,-11,7.79796466091199
-59,-11,20.9445719610393
-58,-11,54.6106460371077
-57,-11,53.8971019795323
-56,-11,17.0763038974169
-55,-11,7.35835325390329
-54,-11,3.97310347152448
-53,-11,2.69223014409949
-52,-11,3.44671399671257
-51,-11,9.34083257481865
-50,-11,17.1375491493182
-49,-11,17.1835170200219
-48,-11,13.5496283148026
-47,-11,3.95630260588868
-46,-11,2.05335272041483
-45,-11,1.18722722535055
-44,-11,0.831731466766762
-43,-11,0.995303508254249
-42,-11,1.60235549397225
-41,-11,2.76000776699687
-40,-11,5.51760960044474
-39,-11,18.4501174197901
-38,-11,19.575495090999
-37,-11,19.543195255765
-36,-11,16.8071932424653
-35,-11,4.82414371980485
-34,-11,2.6143947078407
-75,-10,7.06902361960861
-74,-10,19.7877560223213
-73,-10,27.7418186164827
-72,-10,27.9616238101692
-71,-10,32.6899392130596
-70,-10,24.3650304403411
-69,-10,8.77408774228759
-68,-10,3.77588080681545
-67,-10,1.50223880068701
-62,-10,1.51684971654
-61,-10,3.2005020909661
-60,-10,5.86587972958099
-59,-10,11.6843880526498
-58,-10,18.9156547792626
-57,-10,18.348816562725
-56,-10,10.00446927948
-55,-10,5.38856523258938
-54,-10,3.15008486942941
-53,-10,2.46058141521569
-52,-10,4.14168340901165
-51,-10,15.4690736107937
-50,-10,17.1622031477281
-49,-10,16.7935545447326
-48,-10,6.53887949920638
-47,-10,2.92505956535635
-46,-10,1.58928030038405
-45,-10,0.862030817631855
-44,-10,0.413221491816042
-43,-10,0.624635109971071
-42,-10,1.15156037919993
-41,-10,1.98251670137036
-40,-10,3.57329681582661
-39,-10,8.72061164671196
-38,-10,19.3491274624319
-37,-10,19.6300023267552
-36,-10,19.4028207332479
-35,-10,9.45824052798056
-34,-10,3.93814061160788
-74,-9,34.5180379552446
-73,-9,28.8827295282792
-72,-9,30.7594019040768
-71,-9,26.385440412175
-70,-9,11.7839206977087
-69,-9,5.81904850447441
-68,-9,2.88017156561115
-67,-9,1.00725836827403
-62,-9,0.968889892613767
-61,-9,2.12359058396353
-60,-9,3.66021938501385
-59,-9,5.57192207105601
-58,-9,6.9534952070939
-57,-9,6.79882477575242
-56,-9,5.2162647801376
-55,-9,3.4386110366255
-54,-9,2.11095218583198
-53,-9,2.28929112389638
-52,-9,4.62507371709569
-51,-9,16.2034545003091
-50,-9,17.1223244256658
-49,-9,14.7631169472249
-48,-9,4.30212465122084
-47,-9,2.2529501383834
-46,-9,1.2608680727605
-45,-9,0.618325001358588
-43,-9,0.310240008358645
-42,-9,0.865016322024365
-41,-9,1.73470111875758
-40,-9,2.96354604776992
-39,-9,5.15766250642435
-38,-9,16.9139937708925
-37,-9,19.7452524342412
-36,-9,19.9062188947548
-35,-9,19.1037161179148
-34,-9,6.49244375057976
-33,-9,3.18530549740701
-74,-8,27.405347893087
-73,-8,27.7754609157149
-72,-8,25.9429571839269
-71,-8,11.7252938203085
-70,-8,6.6379471327525
-69,-8,3.67144974848777
-68,-8,1.54975619907892
-67,-8,0.514643510097338
-66,-8,0.134079474694332
-65,-8,0.264110767475711
-64,-8,0.444997988432406
-63,-8,0.599763887134597
-62,-8,0.885735208023783
-61,-8,1.5012098341756
-60,-8,2.28576677130137
-59,-8,3.08267653431397
-58,-8,3.53540371712411
-57,-8,3.36632207383046
-56,-8,2.7892786234482
-55,-8,1.94388887610571
-54,-8,1.59300623873591
-53,-8,2.25657037702074
-52,-8,4.80794440080684
-51,-8,16.432154420273
-50,-8,16.9615636586695
-49,-8,7.91155466365726
-48,-8,3.37668349903876
-47,-8,1.87420205900009
-46,-8,0.999825843559809
-45,-8,0.408753873428966
-43,-8,0.726126520010031
-42,-8,1.47585212399462
-41,-8,2.53012398822993
-40,-8,3.64772127121979
-39,-8,5.30143738946945
-38,-8,8.72315663745566
-37,-8,20.2371950194916
-36,-8,21.3256201464948
-35,-8,21.3861090102147
-34,-8,10.7485139677525
-33,-8,4.27949567165653
-74,-7,21.6869472007372
-73,-7,24.3182651107559
-72,-7,10.4532043386014
-71,-7,6.40316617757302
-70,-7,3.55262910895982
-69,-7,1.75588075959847
-68,-7,0.408569819962513
-67,-7,0.1372480207487
-66,-7,0.4145377281101
-65,-7,0.710751754292486
-64,-7,1.08354115221083
-63,-7,1.40277200303754
-62,-7,1.66349635152407
-61,-7,1.85596231814056
-60,-7,2.14024301848367
-59,-7,2.47788688897061
-58,-7,2.47154839902051
-57,-7,2.15535289823755
-56,-7,1.55789390271092
-55,-7,1.09862850583968
-54,-7,1.23676103605759
-53,-7,2.31485200260751
-52,-7,4.9475928872628
-51,-7,16.3632976111449
-50,-7,16.9861353415278
-49,-7,8.53870432272395
-48,-7,3.24076811381409
-47,-7,1.74816439128054
-46,-7,0.912923719631703
-45,-7,0.23879277525968
-44,-7,0.608922782816295
-43,-7,1.52988032671514
-42,-7,2.67505021392705
-41,-7,4.13903330268469
-40,-7,5.98748817608033
-39,-7,8.58978575765702
-38,-7,12.4003076701317
-37,-7,20.1669384750364
-36,-7,38.5788388716707
-35,-7,43.907037940381
-34,-7,12.6020728640168
-33,-7,5.14420032455907
-32,-7,2.5925581671672
-74,-6,10.7103632307772
-73,-6,7.59558931701983
-72,-6,5.19563166342119
-71,-6,3.3461805302175
-70,-6,1.60468390991714
-69,-6,0.396756865963165
-67,-6,0.403757326167708
-66,-6,0.784416867894351
-65,-6,1.39907617826401
-64,-6,2.1128325093071
-63,-6,2.73351486698941
-62,-6,3.20834006301525
-61,-6,3.54970680737106
-60,-6,3.7851071157316
-59,-6,3.86964195990862
-58,-6,3.57025261590813
-57,-6,2.59044173075875
-56,-6,1.5030164073587
-55,-6,0.96827436745687
-54,-6,1.30480115488824
-53,-6,2.36026043927472
-52,-6,5.09423086043115
-51,-6,16.4557471798814
-50,-6,17.1988588195284
-49,-6,11.3926397686434
-48,-6,3.4835165648988
-47,-6,1.81666881170501
-46,-6,0.91528057020631
-45,-6,0.446695856871622
-44,-6,1.23570149510281
-43,-6,2.43197314836725
-42,-6,4.2464300255799
-41,-6,6.93189081762921
-40,-6,11.1181049622985
-39,-6,22.1965224079804
-38,-6,44.0158412123649
-37,-6,46.4256163761046
-36,-6,46.9818843232898
-35,-6,45.664569365484
-34,-6,13.4580854366979
-33,-6,5.47406012976359
-32,-6,2.74872530133353
-73,-5,3.04643588185836
-72,-5,2.36042920505733
-71,-5,1.37640142898845
-68,-5,0.20128241934695
-67,-5,0.610806263998017
-66,-5,1.29858130585906
-65,-5,2.3767114119107
-64,-5,4.10951889954064
-63,-5,5.68924207640167
-62,-5,6.75414238263382
-61,-5,7.73077951552209
-60,-5,8.90710449695956
-59,-5,10.2901766029364
-58,-5,11.0920326865905
-57,-5,5.38232450504554
-56,-5,2.24597739251205
-55,-5,1.28320319404692
-54,-5,1.36600862135208
-53,-5,2.41765767383674
-52,-5,5.25770201757816
-51,-5,16.6979778360449
-50,-5,17.186595693904
-49,-5,14.4524601762752
-48,-5,3.90610781683644
-47,-5,1.96226236688839
-46,-5,1.02285876806722
-45,-5,0.737906136628145
-44,-5,1.69538076132205
-43,-5,3.39720685830417
-42,-5,6.72158260503984
-41,-5,13.9196532277982
-40,-5,39.7319593223254
-39,-5,46.5180816016591
-38,-5,47.2397980308172
-37,-5,47.221974437755
-36,-5,46.3439745061649
-35,-5,42.1974297027703
-34,-5,11.1538502711833
-33,-5,4.85159311662872
-32,-5,2.50260289720842
-72,-4,0.792227984374773
-68,-4,0.303630352379698
-67,-4,0.871949113312803
-66,-4,1.78148443916006
-65,-4,3.55911756295269
-64,-4,10.6275748536382
-63,-4,14.8475932317815
-62,-4,15.6815183975029
-61,-4,16.0744517673443
-60,-4,16.3178557323129
-59,-4,16.3274211536459
-58,-4,15.0806133570139
-57,-4,6.0666879853813
-56,-4,2.65186601952991
-55,-4,1.45562105363476
-54,-4,1.43173572605301
-53,-4,2.44899778546912
-52,-4,5.42444534084537
-51,-4,16.6326876136209
-50,-4,17.227688327843
-49,-4,15.8507247785748
-48,-4,4.43457156268307
-47,-4,2.16700851689862
-46,-4,1.12867888054457
-45,-4,0.92287372445494
-44,-4,1.85479970741108
-43,-4,3.90065257625651
-42,-4,9.71696214054754
-41,-4,42.9653742438476
-40,-4,46.6346849116683
-39,-4,47.1605158569229
-38,-4,46.0421444016275
-37,-4,39.894020472237
-36,-4,18.1183234445099
-35,-4,10.9321239164452
-34,-4,6.45933148007848
-68,-3,0.412955022559059
-67,-3,1.04455681341886
-66,-3,2.15005820864381
-65,-3,4.29006317821916
-64,-3,12.2814406743272
-63,-3,16.5104975219161
-62,-3,16.9961142294499
-61,-3,17.0884320429757
-60,-3,17.0878071085092
-59,-3,16.8341345657035
-58,-3,14.6836819399319
-57,-3,5.51171097954921
-56,-3,2.6769671964465
-55,-3,1.48810963253561
-54,-3,1.44203527687111
-53,-3,2.48160747438738
-52,-3,5.58707793754275
-51,-3,16.6545646084683
-50,-3,17.2683279738633
-49,-3,16.4830561257154
-48,-3,5.09371898178383
-47,-3,2.37482047949537
-46,-3,1.22656586710973
-45,-3,0.907753105183238
-44,-3,1.76728495700491
-43,-3,3.44215821312139
-42,-3,7.09606283263932
-41,-3,18.395795086298
-40,-3,43.7769347645349
-39,-3,32.0983870842445
-38,-3,15.4696120999205
-37,-3,10.4917879184355
-36,-3,7.69776786981708
-68,-2,0.380890340129485
-67,-2,1.13053390650256
-66,-2,2.29653218714952
-65,-2,4.5186487591636
-64,-2,12.4650615709417
-63,-2,16.7037980165968
-62,-2,17.1621210254002
-61,-2,17.2203600196047
-60,-2,17.1773342546623
-59,-2,16.7458037616117
-58,-2,13.098805036939
-57,-2,4.84252061265267
-56,-2,2.4949842336902
-55,-2,1.40275988048403
-54,-2,1.37604083178102
-53,-2,2.43497369317279
-52,-2,5.66537103848488
-51,-2,16.7476189693949
-50,-2,17.2884668196221
-49,-2,16.8009399530917
-48,-2,5.96902977086992
-47,-2,2.56512528030118
-46,-2,1.30594695640924
-45,-2,0.777041034181222
-44,-2,1.2897616437711
-43,-2,2.52494568166536
-42,-2,4.44745241467178
-41,-2,7.40607354569301
-40,-2,10.2544411622988
-39,-2,8.80524479157983
-38,-2,6.95464224915414
-68,-1,0.411953543859278
-67,-1,1.14123036857476
-66,-1,2.27516945777174
-65,-1,4.49938376587456
-64,-1,12.4113048004317
-63,-1,16.7031439715541
-62,-1,17.1698918884203
-61,-1,17.2269182916751
-60,-1,17.1490262562807
-59,-1,16.483566823752
-58,-1,10.4055937519341
-57,-1,4.26023644087221
-56,-1,2.22998797848059
-55,-1,1.21226104788181
-54,-1,1.18847157630676
-53,-1,2.21384371162586
-52,-1,4.97140103730748
-51,-1,16.3812891730708
-50,-1,17.2571526337343
-49,-1,16.9397362801601
-48,-1,7.08149452819791
-47,-1,2.63301793515531
-46,-1,1.30918063677152
-45,-1,0.64847907849645
-44,-1,0.835019048096134
-43,-1,1.59857519179589
-42,-1,2.56608760468021
-41,-1,3.66714554835276
-68,0,0.382161429803571
-67,0,0.998577926827265
-66,0,2.09348214004506
-65,0,4.21508134359868
-64,0,12.0767198135522
-63,0,16.5330401578272
-62,0,17.0999534549985
-61,0,17.1962040223841
-60,0,17.079537546767
-59,0,16.1042580775461
-58,0,8.05201704156097
-57,0,3.69559803918522
-56,0,1.98298260618898
-55,0,1.01584624069704
-54,0,1.00073254362653
-53,0,1.82411233553583
-52,0,3.66909598302683
-51,0,13.2982679604416
-50,0,16.9364605317444
-49,0,16.1602093603608
-48,0,6.51411739819778
-47,0,2.32819977249909
-46,0,1.15873265981688
-45,0,0.54459903190685
-43,0,0.764448992537518
-68,1,0.261612222290737
-67,1,0.8346099434278
-66,1,1.7551463989695
-65,1,3.42938939801299
-64,1,8.92196539183929
-63,1,15.1900745102766
-62,1,16.6018843425137
-61,1,17.0030982121317
-60,1,16.9304462680084
-59,1,15.4745221872124
-58,1,6.51783497887873
-57,1,3.19100762910581
-56,1,1.6938409454224
-55,1,0.852289340929293
-54,1,0.779646664594569
-53,1,1.38159858378566
-52,1,2.54714873109114
-51,1,6.15637295939417
-50,1,11.6564384503712
-49,1,5.20461983065355
-48,1,2.98448222355314
-47,1,1.65880394619723
-46,1,0.897188290321803
-45,1,0.422768790106147
-68,2,0.133274061330777
-67,2,0.59643557067096
-66,2,1.26775929982506
-65,2,2.36175236936882
-64,2,4.13272122147418
-63,2,6.9828842441469
-62,2,13.0900341099149
-61,2,15.9064789754255
-60,2,16.3670076301986
-59,2,14.152043570663
-58,2,5.23117513490914
-57,2,2.64789567863247
-56,2,1.41452170782319
-55,2,0.614051569256078
-54,2,0.503324888610385
-53,2,0.936475408006714
-52,2,1.56650079666015
-51,2,2.48867023397451
-50,2,2.89102713157056
-49,2,2.31280443945988
-48,2,1.6368959440313
-67,3,0.325496047423388
-66,3,0.811654169213209
-65,3,1.49248590302826
-64,3,2.39339180861874
-63,3,3.58025284124554
-62,3,5.18687618439893
-61,3,8.25056911527561
-60,3,13.1447572370553
-59,3,10.3882625110796
-58,3,3.78612449233819
-57,3,2.0174363604224
-56,3,1.03608214970635
-55,3,0.419281938498068
-54,3,0.276271100877087
-53,3,0.570182560555314
-52,3,0.871929296090533
-51,3,1.16696076707498
-50,3,1.31102712696203
-49,3,1.16091633088366
-66,4,0.413689490926146
-65,4,0.797743663198825
-64,4,1.40143522270996
-63,4,2.02988082904932
-62,4,2.73513597823024
-61,4,3.52796175976592
-60,4,4.07185155875241
-59,4,3.49560326665872
-58,4,2.28663989115475
-57,4,1.35173927971075
-56,4,0.713424988565289
-55,4,0.269251281146967
-53,4,0.282808607936229
-52,4,0.478153558302491
-51,4,0.606834008387107
-50,4,0.662810927441642
-64,5,0.715185170847511
-63,5,1.03632560736998
-62,5,1.44450220518444
-61,5,1.74428016915436
-60,5,1.85620662076792
-59,5,1.62705990586149
-58,5,1.18154984659077
-51,5,0.268456841583218
-61,6,0.806696255994342
-60,6,0.852784804740194
-59,6,0.797919521829124
